# .PCD v0.7 - Point Cloud Data file format
VERSION 0.7
FIELDS x y z rgb
SIZE 4 4 4 4
TYPE F F F U
COUNT 1 1 1 1
WIDTH 1026
HEIGHT 1
VIEWPOINT 0 0 0 1 0 0 0
POINTS 1026
DATA ascii
1.8946227e+33 -96.433586 -659791.62 4287797950
1.8946227e+33 -95.28743 -659791.62 4287798202
4.6704466e+33 -230.90761 -659751.19 4294967039
4.6704466e+33 -229.68811 -659751.19 4294967295
4.6704466e+33 -228.4686 -659751.19 4292467938
4.6704466e+33 -227.2491 -659751.19 4294967295
4.6704466e+33 -226.02957 -659751.19 4294967295
4.6704466e+33 -224.81007 -659751.19 4294967295
4.6704466e+33 -223.59056 -659751.19 4294967295
4.6704466e+33 -221.15155 -659751.19 4294967295
4.6704466e+33 -219.93205 -659751.19 4293256439
1.980965e+33 -113.40517 -659525.81 4286742693
1.980965e+33 -112.51546 -659525.81 4286808994
1.980965e+33 -111.62576 -659525.81 4286809758
1.980965e+33 -93.535217 -659525.81 4287665847
2.0736313e+33 -120.5477 -659260.56 4287138725
2.5230094e+33 -274.54773 -657979.94 4284443264
2.5230094e+33 -273.46912 -657979.94 4284312452
2.5230094e+33 -272.39053 -657979.94 4284510081
2.5230094e+33 -271.31195 -657979.94 4284575624
2.6598522e+33 -270.10269 -657487.38 4285562771
2.6598522e+33 -269.35187 -657487.38 4285628564
2.6598522e+33 -264.0961 -657487.38 4286285215
2.8101069e+33 -266.49716 -657127.12 4287075499
2.8101069e+33 -265.7114 -657127.12 4287206324
2.8101069e+33 -264.53278 -657127.12 4287272371
2.8101069e+33 -263.35419 -657127.12 4287404212
2.8101069e+33 -262.56845 -657127.12 4287470518
2.8101069e+33 -261.78268 -657127.12 4287536311
2.8101069e+33 -260.99695 -657127.12 4287865276
2.9744196e+33 -267.43045 -656599.38 4288523206
2.9744196e+33 -266.60651 -656599.38 4288720329
2.9744196e+33 -265.78262 -656599.38 4288851658
2.9744196e+33 -264.54675 -656599.38 4288917706
2.9744196e+33 -263.31091 -656599.38 4289049804
1.8434258e+33 -101.19658 -656294.06 4286545821
1.8434258e+33 -100.63612 -656294.06 4287138734
1.8434258e+33 -98.394295 -656294.06 4287796665
1.8434258e+33 -97.833839 -656294.06 4288125629
1.9259907e+33 -108.66713 -655894.31 4286678687
1.9259907e+33 -95.336227 -655894.31 4287993784
1.9259907e+33 -94.466812 -655894.31 4288190393
3.3567004e+33 -254.13231 -655495.62 4294441727
3.3567004e+33 -253.21959 -655495.62 4294442239
2.0144135e+33 -115.46693 -655471.75 4286744480
2.0144135e+33 -114.56676 -655471.75 4286678431
2.0144135e+33 -113.6666 -655471.75 4286480539
2.0144135e+33 -93.262787 -655471.75 4287667129
2.0144135e+33 -92.362617 -655471.75 4288257468
2.0144135e+33 -91.462456 -655471.75 4289047754
2.0144135e+33 -90.862335 -655471.75 4288981961
3.3567004e+33 -75.241028 -655495.62 4281810758
3.3567004e+33 -74.328331 -655495.62 4284314240
3.3567004e+33 -73.415611 -655495.62 4285630099
3.3567004e+33 -71.590187 -655495.62 4285560709
3.3567004e+33 -70.677483 -655495.62 4285168263
2.109677e+33 -125.58621 -655128 4288913848
2.109677e+33 -124.65286 -655128 4287597741
2.109677e+33 -123.40842 -655128 4287532968
2.109677e+33 -122.47506 -655128 4287204266
3.5809799e+33 -254.58072 -654936.25 4294967295
3.5809799e+33 -253.61589 -654936.25 4294967295
3.5809799e+33 -89.594925 -654936.25 4289639109
3.5809799e+33 -88.630089 -654936.25 4289507271
3.5809799e+33 -87.665276 -654936.25 4289309892
3.5809799e+33 -86.700432 -654936.25 4289112765
3.5809799e+33 -85.735603 -654936.25 4288981179
3.5809799e+33 -84.77079 -654936.25 4288587957
3.5809799e+33 -83.805946 -654936.25 4288390321
3.5809799e+33 -82.841118 -654936.25 4288522161
3.5809799e+33 -81.876289 -654936.25 4287601059
3.5809799e+33 -80.911461 -654936.25 4284115573
3.8316107e+33 -255.02928 -654170.25 4294967295
3.8316107e+33 -250.9371 -654170.25 4294967295
3.8316107e+33 -249.91406 -654170.25 4294967295
3.8316107e+33 -248.89104 -654170.25 4294967295
3.8316107e+33 -247.86797 -654170.25 4294967295
3.8316107e+33 -246.84494 -654170.25 4294967295
3.8316107e+33 -245.82188 -654170.25 4294967295
3.8316107e+33 -104.64189 -654170.25 4291217623
3.8316107e+33 -103.61884 -654170.25 4291217623
3.8316107e+33 -100.54972 -654170.25 4290953684
4.1147784e+33 -245.75778 -653361.56 4294967295
4.1147784e+33 -241.40247 -653361.56 4294967295
4.1147784e+33 -240.31364 -653361.56 4294967295
4.1147784e+33 -239.22481 -653361.56 4294836223
4.1147784e+33 -238.13599 -653361.56 4294967295
4.1147784e+33 -237.04715 -653361.56 4294967295
4.1147784e+33 -235.95834 -653361.56 4294901759
4.1147784e+33 -124.89806 -653361.56 4288384915
4.1147784e+33 -123.80924 -653361.56 4287595399
4.1147784e+33 -122.72041 -653361.56 4288383366
4.1147784e+33 -121.63158 -653361.56 4288054401
4.1147784e+33 -120.54276 -653361.56 4288056454
4.1147784e+33 -119.45393 -653361.56 4288056454
4.1147784e+33 -118.3651 -653361.56 4288055687
2.5712691e+33 -273.14331 -652994.31 4284641419
2.5712691e+33 -272.41403 -652994.31 4284707212
2.5712691e+33 -271.68472 -652994.31 4284839563
2.5712691e+33 -270.59079 -652994.31 4284970889
2.5712691e+33 -269.49686 -652994.31 4285102472
2.5712691e+33 -268.40289 -652994.31 4285102222
2.5712691e+33 -267.30893 -652994.31 4285364622
2.7127856e+33 -266.71069 -652384.62 4286285726
2.7127856e+33 -265.5675 -652384.62 4286287009
2.7127856e+33 -264.42429 -652384.62 4286680234
2.7127856e+33 -263.66217 -652384.62 4286680234
4.4364333e+33 -239.84328 -652378.25 4294572799
4.4364333e+33 -238.67975 -652378.25 4294506751
4.4364333e+33 -237.5162 -652378.25 4294506751
4.4364333e+33 -236.35268 -652378.25 4294835967
4.4364333e+33 -235.18912 -652378.25 4294572799
4.4364333e+33 -234.02559 -652378.25 4294901759
1.8734964e+33 -103.00858 -652434.56 4286743967
1.8734964e+33 -102.44189 -652434.56 4286743713
1.8734964e+33 -98.475067 -652434.56 4287798204
1.8734964e+33 -97.625046 -652434.56 4287732407
1.8734964e+33 -96.491669 -652434.56 4287928248
1.958109e+33 -109.75157 -651916.44 4286678687
1.958109e+33 -94.508041 -651916.44 4287600571
1.958109e+33 -93.628616 -651916.44 4287732156
2.8676763e+33 -263.66461 -651724.44 4287996349
2.8676763e+33 -262.06851 -651724.44 4288258751
2.8676763e+33 -261.27042 -651724.44 4288390336
4.8059361e+33 -226.8325 -651311.62 4294967295
2.0485566e+33 -118.17917 -651288.56 4286941342
2.0485566e+33 -117.57194 -651288.56 4287072930
2.0485566e+33 -116.6611 -651288.56 4286875809
3.0378996e+33 -266.18024 -650999.12 4289311957
3.0378996e+33 -265.34265 -650999.12 4289574872
3.0378996e+33 -264.5051 -650999.12 4289705427
3.0378996e+33 -263.66754 -650999.12 4289837269
3.0378996e+33 -262.82993 -650999.12 4289902808
3.0378996e+33 -261.57361 -650999.12 4290100698
3.0378996e+33 -260.31726 -650999.12 4290298331
3.2254747e+33 -263.64014 -650122.94 4291679984
3.2254747e+33 -262.75906 -650122.94 4291811312
3.2254747e+33 -261.87799 -650122.94 4292008434
3.2254747e+33 -260.55637 -650122.94 4292205813
3.2254747e+33 -259.23474 -650122.94 4292468472
3.2254747e+33 -258.35367 -650122.94 4292731643
3.4340745e+33 -76.820419 -649239.44 4283258467
3.4340745e+33 -73.102516 -649239.44 4284907144
1.8229292e+33 -98.685837 -648997 4287863226
1.8229292e+33 -97.854492 -648997 4287929531
2.4875478e+33 -273.1702 -648731.88 4284115323
2.4875478e+33 -272.46124 -648731.88 4284246909
2.4875478e+33 -271.75232 -648731.88 4284574075
1.9043046e+33 -106.29741 -648509.12 4286874781
1.9043046e+33 -105.43779 -648509.12 4286743717
1.9043046e+33 -104.57817 -648509.12 4286612129
1.9043046e+33 -96.268532 -648509.12 4287732157
1.9043046e+33 -95.408913 -648509.12 4287797434
3.6664751e+33 -256.73596 -648173.69 4294967295
3.6664751e+33 -255.75256 -648173.69 4294967295
3.6664751e+33 -254.76917 -648173.69 4294967295
3.6664751e+33 -253.78578 -648173.69 4294967295
3.6664751e+33 -252.8024 -648173.69 4294967295
3.6664751e+33 -251.81902 -648173.69 4294967295
3.6664751e+33 -250.83563 -648173.69 4294967295
3.6664751e+33 -249.85223 -648173.69 4294967295
3.6664751e+33 -94.476929 -648173.69 4290494931
3.6664751e+33 -93.493538 -648173.69 4290231244
3.6664751e+33 -91.526764 -648173.69 4290164937
3.6664751e+33 -90.543373 -648173.69 4289835973
2.6214804e+33 -269.53607 -648002.31 4285299343
2.6214804e+33 -268.42609 -648002.31 4285365906
2.6214804e+33 -267.6861 -648002.31 4285496462
2.6214804e+33 -266.94614 -648002.31 4285562256
2.6214804e+33 -264.72614 -648002.31 4285694359
2.6214804e+33 -263.61612 -648002.31 4285890968
2.6214804e+33 -262.50613 -648002.31 4286153627
2.6214804e+33 -261.39615 -648002.31 4286219420
1.9909856e+33 -111.45494 -647848.5 4286612895
1.9909856e+33 -94.550667 -647848.5 4287798204
1.9909856e+33 -93.660965 -647848.5 4287797948
1.9909856e+33 -92.771263 -647848.5 4287864509
2.0840157e+33 -120.37067 -647159.38 4287270059
2.0840157e+33 -119.75601 -647159.38 4287007905
2.7670736e+33 -267.44525 -647064.06 4286680232
2.7670736e+33 -266.2847 -647064.06 4286811818
2.7670736e+33 -265.51099 -647064.06 4286746025
2.7670736e+33 -264.73724 -647064.06 4286943661
2.7670736e+33 -263.57672 -647064.06 4287009452
3.9276681e+33 -248.98636 -647005.44 4294967295
3.9276681e+33 -247.94237 -647005.44 4294967295
3.9276681e+33 -246.89841 -647005.44 4294967295
3.9276681e+33 -245.8544 -647005.44 4294967295
3.9276681e+33 -244.81044 -647005.44 4294967295
3.9276681e+33 -243.76645 -647005.44 4294967295
3.9276681e+33 -242.72247 -647005.44 4294967295
3.9276681e+33 -113.26875 -647005.44 4287924098
3.9276681e+33 -112.22478 -647005.44 4287989896
3.9276681e+33 -111.18079 -647005.44 4286279021
3.9276681e+33 -110.1368 -647005.44 4291938264
2.9272169e+33 -263.99725 -646179.44 4288653511
4.2234067e+33 -236.89513 -645721.06 4294770175
4.2234067e+33 -127.86063 -645721.06 4286549664
1.8528945e+33 -100.4747 -645260.12 4286743716
1.8528945e+33 -98.513107 -645260.12 4287929531
1.8528945e+33 -97.95266 -645260.12 4287929533
3.1029147e+33 -263.13309 -645084.06 4290429409
3.1029147e+33 -262.28156 -645084.06 4290363359
3.1029147e+33 -261.43002 -645084.06 4290495974
3.1029147e+33 -260.57852 -645084.06 4290759403
3.1029147e+33 -259.72699 -645084.06 4290890471
3.1029147e+33 -258.44971 -645084.06 4291022057
3.1029147e+33 -257.17239 -645084.06 4291219435
3.1029147e+33 -256.32086 -645084.06 4291482862
1.9357829e+33 -107.63079 -644483.31 4286678686
1.9357829e+33 -106.76138 -644483.31 4286481563
1.9357829e+33 -95.169296 -644483.31 4287535544
1.9357829e+33 -94.299889 -644483.31 4287733177
4.5607522e+33 -237.39294 -644255.62 4294967295
4.5607522e+33 -236.20207 -644255.62 4294967295
4.5607522e+33 -235.01122 -644255.62 4294967295
4.5607522e+33 -231.43863 -644255.62 4294967295
4.5607522e+33 -230.24776 -644255.62 4294967295
4.5607522e+33 -229.05687 -644255.62 4294967295
4.5607522e+33 -227.86601 -644255.62 4294967295
4.5607522e+33 -226.67516 -644255.62 4294967295
3.2976971e+33 -262.21857 -643973.38 4292599288
3.2976971e+33 -261.3219 -643973.38 4292731641
3.2976971e+33 -260.42523 -643973.38 4292797434
3.2976971e+33 -257.73523 -643973.38 4293127167
3.2976971e+33 -256.83856 -643973.38 4293390079
3.2976971e+33 -255.49356 -643973.38 4293456127
3.2976971e+33 -254.14856 -643973.38 4293652223
3.2976971e+33 -253.25191 -643973.38 4293981183
3.2976971e+33 -252.35522 -643973.38 4294047231
3.2976971e+33 -251.45856 -643973.38 4294179071
3.2976971e+33 -250.56189 -643973.38 4294244095
2.5351576e+33 -274.34064 -643823.5 4284246913
2.5351576e+33 -273.62155 -643823.5 4284378499
2.5351576e+33 -272.54297 -643823.5 4284378499
2.5351576e+33 -271.46439 -643823.5 4284444292
2.5351576e+33 -270.3858 -643823.5 4284575874
2.0245521e+33 -114.39394 -643656.94 4286744480
2.0245521e+33 -113.79382 -643656.94 4286481563
2.0245521e+33 -92.489845 -643656.94 4287863741
2.0245521e+33 -91.589676 -643656.94 4287995325
2.0245521e+33 -90.689499 -643656.94 4288982476
2.1201894e+33 -124.47366 -642877.88 4287270311
2.1201894e+33 -123.54033 -642877.88 4287533740
2.1201894e+33 -122.60699 -642877.88 4287336618
2.1201894e+33 -121.98475 -642877.88 4287401641
2.6725374e+33 -269.51102 -642705.5 4285562771
2.6725374e+33 -268.76022 -642705.5 4285760150
2.6725374e+33 -263.50443 -642705.5 4286285726
3.5137808e+33 -259.2706 -642646 4294704895
3.5137808e+33 -258.32388 -642646 4294507775
3.5137808e+33 -257.37717 -642646 4294901759
3.5137808e+33 -256.43042 -642646 4294901759
3.5137808e+33 -255.48369 -642646 4294967295
3.5137808e+33 -254.53697 -642646 4294967295
3.5137808e+33 -253.59026 -642646 4294967295
3.5137808e+33 -252.64352 -642646 4294967295
3.5137808e+33 -251.69681 -642646 4294967295
3.5137808e+33 -250.75008 -642646 4294967295
3.5137808e+33 -78.446381 -642646 4283392106
3.5137808e+33 -73.712761 -642646 4285169800
2.8233819e+33 -265.09225 -641657.75 4287598772
2.8233819e+33 -264.30649 -641657.75 4287861944
2.8233819e+33 -263.52075 -641657.75 4287600821
2.8233819e+33 -262.73499 -641657.75 4287469234
2.8233819e+33 -261.5564 -641657.75 4287600821
2.8233819e+33 -260.37778 -641657.75 4287864763
3.7559921e+33 -253.0047 -641259.88 4294967295
3.7559921e+33 -252.00185 -641259.88 4294967295
3.7559921e+33 -250.99899 -641259.88 4294967295
3.7559921e+33 -248.99329 -641259.88 4294967295
3.7559921e+33 -247.99043 -641259.88 4294967295
3.7559921e+33 -246.98759 -641259.88 4294967295
1.8830705e+33 -102.56203 -641277.81 4286481311
1.8830705e+33 -101.99534 -641277.81 4286612127
3.7559921e+33 -100.57102 -641259.88 4291020242
3.7559921e+33 -99.568169 -641259.88 4290757326
1.8830705e+33 -98.028519 -641277.81 4288191677
2.8195313e+33 -97.512146 -641268.88 4289047490
2.5073778e+33 -96.594398 -641271.81 4288652479
2.8195313e+33 -95.659256 -641268.88 4289243843
2.988339e+33 -266.78119 -640378.69 4288654022
2.988339e+33 -265.54532 -640378.69 4288851403
2.988339e+33 -264.30948 -640378.69 4289048782
2.988339e+33 -263.48557 -640378.69 4289050063
2.988339e+33 -262.66165 -640378.69 4289050063
1.9680142e+33 -109.28957 -640373.75 4286743967
1.9680142e+33 -95.218628 -640373.75 4287929533
1.9680142e+33 -94.339188 -640373.75 4287797947
4.028372e+33 -243.795 -639641.62 4294967295
4.028372e+33 -242.72905 -639641.62 4294967295
4.028372e+33 -241.66307 -639641.62 4294967295
4.028372e+33 -239.53116 -639641.62 4294967295
4.028372e+33 -238.46519 -639641.62 4294836223
4.028372e+33 -237.39923 -639641.62 4294770687
2.0588154e+33 -117.39706 -639333.75 4287007393
2.0588154e+33 -116.48622 -639333.75 4287138210
2.0588154e+33 -115.87899 -639333.75 4286480539
2.5835903e+33 -276.57977 -638636.25 4284444544
2.5835903e+33 -272.56863 -638636.25 4284577159
2.5835903e+33 -271.47467 -638636.25 4284707976
2.5835903e+33 -270.38074 -638636.25 4285036173
2.5835903e+33 -269.65143 -638636.25 4284839561
2.5835903e+33 -268.5575 -638636.25 4285233550
2.5835903e+33 -267.46356 -638636.25 4285430417
2.5835903e+33 -266.73425 -638636.25 4285298831
1.8322927e+33 -98.526222 -638085.62 4287862714
1.8322927e+33 -97.971992 -638085.62 4287995325
4.3373309e+33 -240.17334 -637805.31 4294835967
4.3373309e+33 -239.0358 -637805.31 4294770175
4.3373309e+33 -237.89825 -637805.31 4294704383
4.3373309e+33 -236.7607 -637805.31 4294704383
4.3373309e+33 -235.62315 -637805.31 4294572799
3.3721205e+33 -253.4131 -637526.56 4294309887
3.3721205e+33 -252.50038 -637526.56 4294507519
3.3721205e+33 -251.58768 -637526.56 4294573311
3.3721205e+33 -74.521812 -637526.56 4281942863
3.3721205e+33 -73.609108 -637526.56 4283918198
3.3721205e+33 -72.696388 -637526.56 4286023574
3.3721205e+33 -70.870972 -637526.56 4284643715
3.3721205e+33 -69.958267 -637526.56 4285561224
2.7256617e+33 -266.11014 -637380.19 4286417053
2.7256617e+33 -265.34799 -637380.19 4286744480
2.7256617e+33 -264.58588 -637380.19 4286810274
1.9139865e+33 -104.69966 -637226.69 4286743199
1.9139865e+33 -103.84005 -637226.69 4286547104
1.9139865e+33 -96.676575 -637226.69 4288125881
1.9139865e+33 -95.530411 -637226.69 4287862712
1.9139865e+33 -94.670799 -637226.69 4287732922
2.0010064e+33 -111.58069 -636171.19 4286678431
2.0010064e+33 -110.39442 -636171.19 4286678432
2.0010064e+33 -94.083275 -636171.19 4287799231
2.0010064e+33 -93.490143 -636171.19 4287928507
2.0010064e+33 -92.600441 -636171.19 4287797436
2.8811594e+33 -262.2377 -636012.31 4288127680
2.8811594e+33 -261.43964 -636012.31 4288259266
2.8811594e+33 -260.64154 -636012.31 4288455876
3.5972801e+33 -253.82042 -635941.12 4294967295
3.5972801e+33 -252.85559 -635941.12 4294967295
3.5972801e+33 -87.869797 -635941.12 4289639111
3.5972801e+33 -86.904984 -635941.12 4289178560
3.5972801e+33 -85.94014 -635941.12 4288982460
3.5972801e+33 -84.492905 -635941.12 4288652981
3.5972801e+33 -83.045654 -635941.12 4288454831
3.5972801e+33 -82.080826 -635941.12 4288456620
3.5972801e+33 -81.115997 -635941.12 4287798434
3.5972801e+33 -80.151169 -635941.12 4283854191
4.6910497e+33 -229.94664 -635742.06 4294967295
4.6910497e+33 -228.72714 -635742.06 4294967295
4.6910497e+33 -227.50763 -635742.06 4292730596
4.6910497e+33 -226.28813 -635742.06 4294967295
4.6910497e+33 -225.0686 -635742.06 4294967295
4.6910497e+33 -223.84909 -635742.06 4294967295
4.6910497e+33 -222.62959 -635742.06 4294967295
4.6910497e+33 -220.19058 -635742.06 4294967295
4.6910497e+33 -218.97108 -635742.06 4293520380
2.0944003e+33 -119.57899 -635058.25 4287204004
2.4995254e+33 -272.61157 -634774.44 4284181116
2.4995254e+33 -271.54813 -634774.44 4284180862
3.0520502e+33 -268.03293 -634509.44 4289114321
3.0520502e+33 -267.19537 -634509.44 4288984272
3.0520502e+33 -266.35779 -634509.44 4289050066
3.0520502e+33 -265.52023 -634509.44 4289376980
3.0520502e+33 -264.68265 -634509.44 4289311186
3.0520502e+33 -263.4263 -634509.44 4289837269
3.0520502e+33 -262.16995 -634509.44 4289378515
3.0520502e+33 -261.33237 -634509.44 4289970652
3.0520502e+33 -260.49481 -634509.44 4289706712
3.0520502e+33 -259.65726 -634509.44 4290167263
1.8623632e+33 -100.31329 -634226.06 4286480541
1.8623632e+33 -99.47261 -634226.06 4287140788
1.8623632e+33 -98.3517 -634226.06 4288388288
1.8623632e+33 -97.511017 -634226.06 4287928505
3.8488949e+33 -254.22313 -634029.06 4294967295
3.8488949e+33 -253.20007 -634029.06 4294967295
3.8488949e+33 -252.17703 -634029.06 4294967295
3.8488949e+33 -251.15401 -634029.06 4294967295
3.8488949e+33 -250.13095 -634029.06 4294967295
3.8488949e+33 -249.10791 -634029.06 4294967295
3.8488949e+33 -248.08485 -634029.06 4294967295
3.8488949e+33 -247.06181 -634029.06 4294967295
3.8488949e+33 -246.03879 -634029.06 4294967295
3.8488949e+33 -245.01573 -634029.06 4294967295
3.8488949e+33 -106.90487 -634029.06 4292267486
3.8488949e+33 -105.88181 -634029.06 4292005340
3.8488949e+33 -104.85877 -634029.06 4291281874
3.8488949e+33 -103.83573 -634029.06 4291413971
3.8488949e+33 -102.81269 -634029.06 4291216592
3.8488949e+33 -99.743561 -634029.06 4290953171
3.8488949e+33 -98.720512 -634029.06 4290755791
3.8488949e+33 -97.697472 -634029.06 4290493387
2.6339824e+33 -269.32294 -633433.69 4285365906
2.6339824e+33 -268.58298 -633433.69 4285364626
2.6339824e+33 -267.47299 -633433.69 4285562003
2.6339824e+33 -266.36301 -633433.69 4285496462
2.6339824e+33 -264.14301 -633433.69 4285694870
2.6339824e+33 -263.40302 -633433.69 4285694870
2.6339824e+33 -262.66299 -633433.69 4286153627
2.6339824e+33 -261.55304 -633433.69 4286022298
2.6339824e+33 -260.44302 -633433.69 4286219933
1.9455752e+33 -107.46386 -633072.38 4286612125
1.9455752e+33 -106.59445 -633072.38 4286481309
1.9455752e+33 -95.292175 -633072.38 4287798715
1.9455752e+33 -94.712563 -633072.38 4287798715
3.2403607e+33 -262.50531 -632776.75 4291614447
3.2403607e+33 -261.18369 -632776.75 4291943411
3.2403607e+33 -260.30261 -632776.75 4292468472
3.2403607e+33 -259.42154 -632776.75 4292139507
3.2403607e+33 -258.54047 -632776.75 4292599288
3.2403607e+33 -255.01616 -632776.75 4293192191
3.2403607e+33 -254.13507 -632776.75 4292863227
4.1331739e+33 -244.89978 -631925.19 4294967295
4.1331739e+33 -243.81094 -631925.19 4294901759
4.1331739e+33 -242.72212 -631925.19 4294967295
4.1331739e+33 -241.6333 -631925.19 4294967295
4.1331739e+33 -240.54446 -631925.19 4294836223
4.1331739e+33 -239.45564 -631925.19 4294967295
4.1331739e+33 -238.36681 -631925.19 4294967295
4.1331739e+33 -237.27798 -631925.19 4294967295
4.1331739e+33 -236.18916 -631925.19 4294967295
4.1331739e+33 -235.10034 -631925.19 4294836223
4.1331739e+33 -234.01152 -631925.19 4294770175
4.1331739e+33 -232.92268 -631925.19 4294901759
4.1331739e+33 -124.04005 -631925.19 4288187007
4.1331739e+33 -122.95124 -631925.19 4288187007
4.1331739e+33 -121.86241 -631925.19 4288383618
2.7801453e+33 -267.60928 -631831.62 4286548898
2.7801453e+33 -266.44873 -631831.62 4286746277
2.7801453e+33 -265.67499 -631831.62 4286877350
2.7801453e+33 -264.51447 -631831.62 4286877609
2.7801453e+33 -263.35388 -631831.62 4287009454
2.7801453e+33 -262.58017 -631831.62 4287206063
2.7801453e+33 -261.80643 -631831.62 4287271856
2.0346908e+33 -113.62099 -631842.31 4286743711
2.0346908e+33 -92.317017 -631842.31 4287996349
2.0346908e+33 -91.41684 -631842.31 4287140272
2.0346908e+33 -90.51667 -631842.31 4287602897
2.0346908e+33 -89.916565 -631842.31 4287668690
3.4497777e+33 -76.08799 -630940.31 4283652712
3.4497777e+33 -73.299553 -630940.31 4286678937
2.1307017e+33 -123.67223 -630627.69 4287401897
2.1307017e+33 -122.42778 -630627.69 4287204780
2.1307017e+33 -121.49443 -630627.69 4287072167
2.9409153e+33 -263.35831 -630216.19 4288587464
1.8926444e+33 -102.11548 -630121.19 4286415518
1.8926444e+33 -101.54879 -630121.19 4286086301
1.8926444e+33 -97.29863 -630121.19 4287798716
1.8926444e+33 -96.448593 -630121.19 4287864509
2.5473058e+33 -274.49307 -629667.06 4283985792
2.5473058e+33 -273.77399 -629667.06 4283985792
2.5473058e+33 -271.61682 -629667.06 4284379264
2.5473058e+33 -270.53821 -629667.06 4284510338
2.5473058e+33 -269.45966 -629667.06 4284707460
4.4560908e+33 -234.27226 -629471.12 4294770175
4.4560908e+33 -233.10872 -629471.12 4294967295
4.4560908e+33 -228.45457 -629471.12 4294967295
4.4560908e+33 -227.29103 -629471.12 4294901759
3.6830889e+33 -253.50256 -628813.19 4294967295
3.6830889e+33 -252.02748 -628813.19 4294967295
3.6830889e+33 -251.0441 -628813.19 4294967295
3.6830889e+33 -250.06071 -628813.19 4294967295
3.6830889e+33 -249.07732 -628813.19 4294967295
1.9779193e+33 -108.24128 -628831.25 4286743967
1.9779193e+33 -107.36185 -628831.25 4286808992
1.9779193e+33 -94.463486 -628831.25 4288058555
1.9779193e+33 -93.584045 -628831.25 4287470266
3.6830889e+33 -92.718628 -628813.19 4290230215
3.6830889e+33 -91.735237 -628813.19 4290230215
3.6830889e+33 -90.751862 -628813.19 4289901764
3.6830889e+33 -89.768471 -628813.19 4289901764
3.6830889e+33 -88.78508 -628813.19 4289639109
3.6830889e+33 -87.801689 -628813.19 4289507523
3.6830889e+33 -86.818314 -628813.19 4288719034
3.6830889e+33 -85.834923 -628813.19 4288916669
3.1173008e+33 -260.75903 -628319.56 4290561508
3.1173008e+33 -259.48175 -628319.56 4290759143
3.1173008e+33 -258.20447 -628319.56 4291022570
3.1173008e+33 -257.35294 -628319.56 4290627814
3.1173008e+33 -256.5014 -628319.56 4291219952
3.1173008e+33 -255.64987 -628319.56 4291482862
2.6852222e+33 -262.91278 -627923.5 4286417053
2.0690744e+33 -117.22218 -627378.94 4287072417
2.0690744e+33 -116.31134 -627378.94 4286940574
2.0690744e+33 -115.40049 -627378.94 4286874783
4.8270436e+33 -225.84801 -626714.56 4294901759
4.8270436e+33 -222.09987 -626714.56 4285954181
3.9453059e+33 -250.25166 -626452.06 4294967295
3.9453059e+33 -249.20769 -626452.06 4294967295
3.9453059e+33 -246.07573 -626452.06 4294967295
3.9453059e+33 -245.03175 -626452.06 4294967295
3.9453059e+33 -243.98778 -626452.06 4294967295
3.9453059e+33 -242.9438 -626452.06 4294967295
3.9453059e+33 -241.89981 -626452.06 4294967295
3.9453059e+33 -240.85583 -626452.06 4294967295
3.9453059e+33 -239.81184 -626452.06 4294967295
3.9453059e+33 -112.44608 -626452.06 4288055687
3.9453059e+33 -111.40211 -626452.06 4288055937
3.9453059e+33 -110.35813 -626452.06 4286411111
3.9453059e+33 -109.31415 -626452.06 4289238410
3.3128461e+33 -261.51199 -626320.25 4292731130
3.3128461e+33 -260.61533 -626320.25 4292797434
3.3128461e+33 -259.71866 -626320.25 4292863227
3.3128461e+33 -257.02866 -626320.25 4293323775
3.3128461e+33 -256.13199 -626320.25 4293455615
3.3128461e+33 -255.23531 -626320.25 4293324031
3.3128461e+33 -254.33865 -626320.25 4293521407
3.3128461e+33 -253.44199 -626320.25 4293718783
3.3128461e+33 -252.54532 -626320.25 4293784575
3.3128461e+33 -251.64865 -626320.25 4294047231
3.3128461e+33 -250.75198 -626320.25 4294047231
3.3128461e+33 -249.85532 -626320.25 4294244095
2.8366567e+33 -264.47305 -626188.38 4287207348
2.8366567e+33 -263.68732 -626188.38 4287404471
2.8366567e+33 -262.50873 -626188.38 4287207346
2.8366567e+33 -261.33011 -626188.38 4287798715
2.8366567e+33 -260.54434 -626188.38 4287864509
2.8366567e+33 -259.75861 -626188.38 4287865276
2.8366567e+33 -258.97287 -626188.38 4287931069
2.167259e+33 -123.42065 -625899.31 4287467949
1.9236685e+33 -104.53461 -625944.19 4286678687
1.9236685e+33 -103.675 -625944.19 4286678432
1.9236685e+33 -102.81538 -625944.19 4286678433
1.9236685e+33 -96.511513 -625944.19 4288453818
1.9236685e+33 -95.651901 -625944.19 4288191929
1.9236685e+33 -94.792282 -625944.19 4287929783
2.0110272e+33 -111.40986 -624493.81 4286809760
2.0110272e+33 -110.52016 -624493.81 4286743969
2.0110272e+33 -109.3339 -624493.81 4286612640
2.0110272e+33 -94.209015 -624493.81 4287600569
2.0110272e+33 -93.319321 -624493.81 4287995326
2.0110272e+33 -92.429611 -624493.81 4287600569
2.0110272e+33 -91.836487 -624493.81 4287996349
2.5959115e+33 -271.26462 -624278.12 4284839048
2.5959115e+33 -270.53534 -624278.12 4284773257
2.5959115e+33 -269.44141 -624278.12 4285036430
2.5959115e+33 -268.34744 -624278.12 4285036943
2.5959115e+33 -267.61816 -624278.12 4285168524
2.5959115e+33 -266.52423 -624278.12 4285234318
3.0022587e+33 -266.13193 -624158.06 4288455876
3.0022587e+33 -265.30804 -624158.06 4288982220
3.0022587e+33 -264.48413 -624158.06 4288917199
3.5297753e+33 -256.63113 -624007.38 4294770687
3.5297753e+33 -255.6844 -624007.38 4294901759
3.5297753e+33 -254.73769 -624007.38 4294967295
3.5297753e+33 -253.79095 -624007.38 4294967295
3.5297753e+33 -252.84424 -624007.38 4294967295
3.5297753e+33 -251.89751 -624007.38 4294967295
3.5297753e+33 -250.47742 -624007.38 4294967295
3.5297753e+33 -77.700363 -624007.38 4283327846
3.5297753e+33 -76.753624 -624007.38 4282863459
4.2422039e+33 -236.0184 -623816.69 4294901759
4.2422039e+33 -126.98389 -623816.69 4286220701
1.8718319e+33 -99.871658 -623192.06 4286678181
1.8718319e+33 -98.190285 -623192.06 4288322493
1.8718319e+33 -97.349602 -623192.06 4287797689
2.1047846e+33 -119.40197 -622957.06 4287466925
2.1047846e+33 -118.78731 -622957.06 4287138721
2.7385375e+33 -265.50955 -622375.62 4286416801
2.7385375e+33 -264.74744 -622375.62 4286548128
3.1851906e+33 -260.20111 -622003.12 4291351535
3.1851906e+33 -259.33502 -622003.12 4291548655
1.9553675e+33 -95.415047 -621661.31 4287732407
1.9553675e+33 -94.545639 -621661.31 4288190909
3.7729348e+33 -252.21445 -621516.25 4294967295
3.7729348e+33 -251.21159 -621516.25 4294967295
3.7729348e+33 -250.20876 -621516.25 4294967295
3.7729348e+33 -99.780785 -621516.25 4291085522
3.7729348e+33 -98.777924 -621516.25 4291085522
3.7729348e+33 -94.766518 -621516.25 4290361544
2.5115027e+33 -272.05289 -620817 4284115325
2.5115027e+33 -271.34393 -620817 4284246911
4.5808715e+33 -236.45453 -620810.38 4294900991
4.5808715e+33 -235.26367 -620810.38 4294967295
4.5808715e+33 -230.50021 -620810.38 4294967295
4.5808715e+33 -229.30934 -620810.38 4294967295
4.5808715e+33 -228.11848 -620810.38 4294967295
4.5808715e+33 -226.92761 -620810.38 4294967295
4.5808715e+33 -225.73676 -620810.38 4294967295
2.8946427e+33 -261.60883 -620300.25 4288389823
2.8946427e+33 -260.41168 -620300.25 4288390082
2.0448295e+33 -113.44816 -620027.5 4286940576
2.0448295e+33 -112.84805 -620027.5 4286744732
2.0448295e+33 -93.044342 -620027.5 4288190909
2.0448295e+33 -92.444237 -620027.5 4288322493
2.0448295e+33 -91.544067 -620027.5 4287207099
2.0448295e+33 -90.343842 -620027.5 4294967295
2.0448295e+33 -89.443672 -620027.5 4294967295
3.3875406e+33 -252.69388 -619557.56 4294442239
3.3875406e+33 -251.78116 -619557.56 4294507519
3.3875406e+33 -250.86845 -619557.56 4294573311
3.3875406e+33 -73.802597 -619557.56 4282665817
3.3875406e+33 -72.889893 -619557.56 4283915631
3.3875406e+33 -70.151749 -619557.56 4284643200
3.3875406e+33 -69.239044 -619557.56 4285429638
1.9022185e+33 -101.10223 -618964.5 4286678433
1.9022185e+33 -98.268799 -618964.5 4287995579
1.9022185e+33 -97.418762 -618964.5 4288191675
1.9022185e+33 -96.285385 -618964.5 4288191675
2.6464843e+33 -268.73984 -618864.94 4285234319
2.6464843e+33 -267.62988 -618864.94 4285299862
2.6464843e+33 -266.51987 -618864.94 4285562258
2.6464843e+33 -265.40988 -618864.94 4285628307
2.6464843e+33 -264.29987 -618864.94 4285694357
2.6464843e+33 -263.55988 -618864.94 4285760152
2.6464843e+33 -262.44989 -618864.94 4285957274
2.6464843e+33 -261.3399 -618864.94 4286088602
2.6464843e+33 -260.59991 -618864.94 4286285213
2.6464843e+33 -259.85992 -618864.94 4286351006
4.0463813e+33 -242.95503 -618655.44 4294967295
4.0463813e+33 -241.88907 -618655.44 4294967295
4.0463813e+33 -240.82309 -618655.44 4294967295
4.0463813e+33 -118.23747 -618655.44 4288317825
4.0463813e+33 -117.17151 -618655.44 4287727235
4.0463813e+33 -116.10555 -618655.44 4288121993
4.0463813e+33 -115.03959 -618655.44 4287792764
4.0463813e+33 -113.97363 -618655.44 4287990144
2.141214e+33 -123.49303 -618377.62 4287269289
2.141214e+33 -122.8708 -618377.62 4287598511
2.141214e+33 -121.00412 -618377.62 4287335334
2.141214e+33 -120.38189 -618377.62 4287466921
2.141214e+33 -119.75966 -618377.62 4287531936
3.0662005e+33 -268.21051 -618019.75 4288917197
3.0662005e+33 -267.37292 -618019.75 4289048782
3.0662005e+33 -266.53534 -618019.75 4288720849
3.0662005e+33 -265.69778 -618019.75 4289049814
3.0662005e+33 -264.44141 -618019.75 4289442511
3.0662005e+33 -263.18506 -618019.75 4289903062
3.0662005e+33 -262.3475 -618019.75 4289508305
3.0662005e+33 -261.50995 -618019.75 4289969880
3.0662005e+33 -260.67236 -618019.75 4290035929
3.0662005e+33 -259.83481 -618019.75 4290100955
3.0662005e+33 -258.57843 -618019.75 4290364128
3.0662005e+33 -257.32208 -618019.75 4290627301
1.9878244e+33 -107.193 -617288.56 4286547104
1.9878244e+33 -106.60671 -617288.56 4286678433
1.9878244e+33 -94.294632 -617288.56 4288061118
1.9878244e+33 -93.708344 -617288.56 4287732409
3.6135807e+33 -253.06013 -616946.06 4294967295
3.6135807e+33 -252.09531 -616946.06 4294967295
3.6135807e+33 -251.13048 -616946.06 4294967295
3.6135807e+33 -250.16565 -616946.06 4294967295
3.6135807e+33 -83.250214 -616946.06 4288456114
3.6135807e+33 -82.28537 -616946.06 4288258735
3.6135807e+33 -81.320541 -616946.06 4288520880
3.6135807e+33 -80.355713 -616946.06 4288454831
3.6135807e+33 -79.390884 -616946.06 4284115823
2.793217e+33 -267.38644 -616599.12 4286549155
2.793217e+33 -266.61276 -616599.12 4286352803
2.793217e+33 -265.45215 -616599.12 4286615461
2.793217e+33 -264.29163 -616599.12 4286943657
2.793217e+33 -263.51791 -616599.12 4287009706
2.793217e+33 -262.7442 -616599.12 4287009706
2.793217e+33 -261.58362 -616599.12 4287074993
1.8510196e+33 -98.206985 -616262.94 4286613926
1.8510196e+33 -97.652748 -616262.94 4287995579
2.559454e+33 -275.36456 -615510.62 4284246911
2.559454e+33 -274.64548 -615510.62 4284312704
2.559454e+33 -273.56689 -615510.62 4284312956
2.559454e+33 -272.48831 -615510.62 4284771710
2.559454e+33 -271.40973 -615510.62 4284575359
2.559454e+33 -268.53351 -615510.62 4284641668
3.255246e+33 -261.37048 -615430.5 4291548655
3.255246e+33 -260.48941 -615430.5 4291877364
3.255246e+33 -259.60834 -615430.5 4291877364
3.255246e+33 -258.72726 -615430.5 4292272122
3.255246e+33 -257.84616 -615430.5 4292665081
3.255246e+33 -254.32187 -615430.5 4292731643
3.255246e+33 -253.44078 -615430.5 4293060607
4.3565493e+33 -239.27695 -615409.81 4294770175
4.3565493e+33 -238.1394 -615409.81 4294967295
4.3565493e+33 -237.00186 -615409.81 4294901759
4.3565493e+33 -235.86432 -615409.81 4294770175
4.3565493e+33 -234.72676 -615409.81 4294770175
4.3565493e+33 -233.58922 -615409.81 4294901759
4.3565493e+33 -232.45168 -615409.81 4294770175
4.3565493e+33 -231.31412 -615409.81 4294704383
4.3565493e+33 -230.17657 -615409.81 4294572799
2.0793334e+33 -116.44006 -615424.12 4287006879
2.0793334e+33 -115.52923 -615424.12 4287072417
2.0793334e+33 -114.61838 -615424.12 4286940577
2.0793334e+33 -91.240128 -615424.12 4294705151
2.0793334e+33 -90.329285 -615424.12 4294967295
1.9333505e+33 -104.08303 -614661.62 4286480793
1.9333505e+33 -103.50996 -614661.62 4286612379
1.9333505e+33 -102.65034 -614661.62 4286546847
1.9333505e+33 -97.49263 -614661.62 4288060605
1.9333505e+33 -96.346466 -614661.62 4287994297
1.9333505e+33 -95.486855 -614661.62 4288125883
1.9333505e+33 -94.913773 -614661.62 4287929785
2.9546144e+33 -262.71936 -614252.94 4288718280
3.8661787e+33 -253.41696 -613887.88 4294967295
3.8661787e+33 -252.39392 -613887.88 4294967295
3.8661787e+33 -251.37088 -613887.88 4294967295
3.8661787e+33 -250.34782 -613887.88 4294967295
3.8661787e+33 -249.32478 -613887.88 4294967295
3.8661787e+33 -248.30174 -613887.88 4294967295
3.8661787e+33 -247.2787 -613887.88 4294967295
3.8661787e+33 -246.25566 -613887.88 4294967295
3.8661787e+33 -243.18654 -613887.88 4294967295
3.8661787e+33 -242.16348 -613887.88 4294967295
3.8661787e+33 -106.0987 -613887.88 4288317564
3.8661787e+33 -105.07565 -613887.88 4290492088
3.8661787e+33 -104.05261 -613887.88 4291413190
3.8661787e+33 -103.02957 -613887.88 4291215308
3.8661787e+33 -102.00652 -613887.88 4291215308
3.8661787e+33 -100.98348 -613887.88 4290953420
3.8661787e+33 -99.960434 -613887.88 4290821834
3.8661787e+33 -98.937401 -613887.88 4290624973
3.8661787e+33 -97.914352 -613887.88 4290624973
3.8661787e+33 -96.891304 -613887.88 4290361546
2.1778991e+33 -124.49887 -613500.19 4286744230
2.1778991e+33 -123.55417 -613500.19 4287599279
2.1778991e+33 -122.60947 -613500.19 4287401641
2.6979071e+33 -262.32114 -613141.62 4286416801
2.0210481e+33 -110.6459 -612816.5 4286678684
2.0210481e+33 -109.45964 -612816.5 4286678430
2.0210481e+33 -108.56995 -612816.5 4286678687
2.0210481e+33 -93.148491 -612816.5 4287732155
2.0210481e+33 -92.555359 -612816.5 4288322495
3.4654807e+33 -253.81558 -612641.12 4294574079
3.4654807e+33 -252.88609 -612641.12 4294639615
3.4654807e+33 -74.426079 -612641.12 4282863459
3.4654807e+33 -73.496613 -612641.12 4282931303
3.4654807e+33 -72.567123 -612641.12 4286878626
1.8813007e+33 -99.430016 -612158.06 4286744226
1.8813007e+33 -97.748642 -612158.06 4287995579
4.711653e+33 -232.64418 -611733 4294967295
4.711653e+33 -231.42468 -611733 4294901759
4.711653e+33 -230.20517 -611733 4294967295
4.711653e+33 -228.98567 -611733 4294967295
4.711653e+33 -227.76616 -611733 4294967295
4.711653e+33 -226.54666 -611733 4293059048
4.711653e+33 -225.32713 -611733 4294967295
4.711653e+33 -224.10764 -611733 4294967295
4.711653e+33 -222.88812 -611733 4294967039
4.711653e+33 -221.66861 -611733 4294967295
4.711653e+33 -219.2296 -611733 4294967295
4.711653e+33 -218.0101 -611733 4294112767
3.1316872e+33 -260.08804 -611555.06 4290758369
3.1316872e+33 -259.23651 -611555.06 4290824162
3.1316872e+33 -258.38498 -611555.06 4290890469
3.1316872e+33 -257.53345 -611555.06 4291088104
3.1316872e+33 -256.68192 -611555.06 4291088363
2.1151691e+33 -117.68829 -610855.94 4287334301
2.1151691e+33 -91.257912 -610855.94 4294967295
2.1151691e+33 -90.643257 -610855.94 4292532954
2.8499314e+33 -262.28244 -610719 4287470264
2.8499314e+33 -261.49667 -610719 4287602106
2.8499314e+33 -260.71091 -610719 4287799229
2.8499314e+33 -259.53229 -610719 4287733179
2.8499314e+33 -258.3537 -610719 4287930302
4.151569e+33 -244.04178 -610488.88 4294967295
4.151569e+33 -242.95296 -610488.88 4294967295
4.151569e+33 -241.86412 -610488.88 4294967295
4.151569e+33 -240.7753 -610488.88 4294967295
4.151569e+33 -239.68646 -610488.88 4294967295
4.151569e+33 -238.59764 -610488.88 4294967295
4.151569e+33 -237.50882 -610488.88 4294967295
4.151569e+33 -236.42 -610488.88 4294967295
4.151569e+33 -235.33118 -610488.88 4294967295
4.151569e+33 -234.24234 -610488.88 4294967295
4.151569e+33 -233.15352 -610488.88 4294967295
4.151569e+33 -232.06468 -610488.88 4294901759
4.151569e+33 -123.18206 -610488.88 4288121466
4.151569e+33 -122.09325 -610488.88 4288187259
4.151569e+33 -121.00443 -610488.88 4288382853
1.9651597e+33 -104.52179 -610250.38 4286678174
1.9651597e+33 -94.3787 -610250.38 4287732670
1.9651597e+33 -93.79911 -610250.38 4287666877
2.6082329e+33 -270.68994 -609920.06 4284839309
2.6082329e+33 -269.59601 -609920.06 4284905609
2.6082329e+33 -268.50208 -609920.06 4285037195
2.6082329e+33 -267.40808 -609920.06 4285168268
2.6082329e+33 -266.31418 -609920.06 4285299853
2.6082329e+33 -265.58487 -609920.06 4285300112
3.699703e+33 -253.21935 -609452.75 4294967295
3.699703e+33 -252.23596 -609452.75 4294967295
3.699703e+33 -251.25258 -609452.75 4294967295
3.699703e+33 -250.26918 -609452.75 4294967295
3.699703e+33 -249.2858 -609452.75 4294967295
3.699703e+33 -248.3024 -609452.75 4294967295
3.699703e+33 -91.943718 -609452.75 4290361546
3.699703e+33 -90.960327 -609452.75 4290164424
3.699703e+33 -89.976944 -609452.75 4289835971
3.699703e+33 -88.501862 -609452.75 4289573056
3.699703e+33 -87.026772 -609452.75 4289310142
3.699703e+33 -86.043396 -609452.75 4288785081
3.699703e+33 -85.060005 -609452.75 4288456116
3.3279948e+33 -260.80542 -608667.06 4292534265
3.3279948e+33 -259.46042 -608667.06 4292732411
3.3279948e+33 -258.11542 -608667.06 4292797434
3.3279948e+33 -257.21875 -608667.06 4292929021
3.3279948e+33 -256.32208 -608667.06 4293191679
3.3279948e+33 -255.4254 -608667.06 4293454591
3.3279948e+33 -254.52875 -608667.06 4293718271
3.3279948e+33 -253.63208 -608667.06 4293718271
3.3279948e+33 -252.73541 -608667.06 4293718271
3.3279948e+33 -251.83875 -608667.06 4294178815
3.3279948e+33 -250.49374 -608667.06 4294047231
3.3279948e+33 -249.14873 -608667.06 4294179071
2.0549682e+33 -112.37515 -608212.81 4286809758
2.0549682e+33 -92.571457 -608212.81 4288453827
2.0549682e+33 -91.671288 -608212.81 4288257736
2.0549682e+33 -90.771118 -608212.81 4286486742
3.0161781e+33 -265.48273 -607937.44 4288588999
3.0161781e+33 -264.65881 -607937.44 4288786122
1.9117926e+33 -100.65569 -607807.81 4286809760
1.9117926e+33 -98.388931 -607807.81 4287864761
1.9117926e+33 -97.538895 -607807.81 4287732664
2.7514137e+33 -265.67111 -607371.06 4286547878
2.7514137e+33 -264.52795 -607371.06 4286417059
2.5234804e+33 -266.53159 -606859.5 4284575874
2.5234804e+33 -265.82266 -606859.5 4284641667
4.4757481e+33 -233.35539 -606563.88 4294704895
4.4757481e+33 -232.19186 -606563.88 4294835199
4.4757481e+33 -228.70125 -606563.88 4294967295
4.4757481e+33 -227.5377 -606563.88 4294967295
4.4757481e+33 -226.37418 -606563.88 4294967295
2.1517263e+33 -120.51379 -606127.44 4287270309
2.1517263e+33 -119.58046 -606127.44 4287269538
3.9629435e+33 -245.25308 -605898.62 4294967295
3.9629435e+33 -244.20909 -605898.62 4294967295
3.9629435e+33 -243.16513 -605898.62 4294967295
3.9629435e+33 -242.12112 -605898.62 4294967295
3.9629435e+33 -241.07716 -605898.62 4294967295
3.9629435e+33 -240.03317 -605898.62 4294967295
3.9629435e+33 -238.98918 -605898.62 4294967295
3.9629435e+33 -110.57945 -605898.62 4288577126
3.9629435e+33 -109.53547 -605898.62 4289826937
3.9629435e+33 -108.49149 -605898.62 4289822803
3.9629435e+33 -101.18362 -605898.62 4290689733
3.9629435e+33 -100.13964 -605898.62 4290624455
1.9977298e+33 -106.43786 -605746.06 4286677920
1.9977298e+33 -93.53949 -605746.06 4288192188
1.9977298e+33 -92.660057 -605746.06 4287929533
3.5457698e+33 -255.88512 -605368.69 4294901759
3.5457698e+33 -254.93837 -605368.69 4294901759
3.5457698e+33 -253.5183 -605368.69 4294967295
3.5457698e+33 -252.09822 -605368.69 4294967295
3.5457698e+33 -251.15149 -605368.69 4294967295
3.5457698e+33 -250.20477 -605368.69 4294967295
3.5457698e+33 -249.25803 -605368.69 4294967295
1.8603831e+33 -97.493134 -605351.69 4287140786
3.5457698e+33 -76.480972 -605368.69 4283324516
3.1998225e+33 -258.65256 -604952.25 4291679469
3.1998225e+33 -257.7865 -604952.25 4291745518
2.9081257e+33 -260.5809 -604588.19 4288390335
2.9081257e+33 -259.38379 -604588.19 4288455364
2.6589863e+33 -268.15671 -604296.31 4285300112
2.6589863e+33 -267.41675 -604296.31 4285496210
2.6589863e+33 -266.67676 -604296.31 4285562004
2.6589863e+33 -265.56674 -604296.31 4285889170
2.6589863e+33 -264.45676 -604296.31 4285759634
2.6589863e+33 -263.71674 -604296.31 4285891220
2.6589863e+33 -262.60675 -604296.31 4285956248
2.6589863e+33 -261.4968 -604296.31 4286219931
2.6589863e+33 -260.38678 -604296.31 4286219931
2.6589863e+33 -259.27679 -604296.31 4286285724
2.089592e+33 -115.35434 -603469.31 4287072415
2.089592e+33 -114.4435 -603469.31 4286743967
1.9430325e+33 -102.48528 -603379.12 4286743967
1.9430325e+33 -101.9122 -603379.12 4286743967
1.9430325e+33 -97.327576 -603379.12 4288126654
1.9430325e+33 -96.467957 -603379.12 4288387773
1.9430325e+33 -95.321808 -603379.12 4287928507
1.9430325e+33 -94.462189 -603379.12 4287862712
1.9430325e+33 -93.889107 -603379.12 4288191677
4.8481514e+33 -228.61162 -602117.44 4294967295
4.8481514e+33 -227.36224 -602117.44 4294967295
4.8481514e+33 -226.11287 -602117.44 4294967295
4.8481514e+33 -224.86348 -602117.44 4294967295
4.8481514e+33 -221.11537 -602117.44 4286611082
4.2610008e+33 -235.14168 -601912.44 4294901759
4.2610008e+33 -126.10716 -601912.44 4284650389
3.7898779e+33 -251.42421 -601772.5 4294967295
3.7898779e+33 -250.42134 -601772.5 4294967295
3.7898779e+33 -249.4185 -601772.5 4294967295
3.7898779e+33 -93.976257 -601772.5 4290493133
3.7898779e+33 -92.973412 -601772.5 4290296522
3.7898779e+33 -87.959129 -601772.5 4289179587
3.4029604e+33 -252.88737 -601588.56 4294310655
3.4029604e+33 -251.51831 -601588.56 4294441983
3.4029604e+33 -250.14925 -601588.56 4294310143
3.4029604e+33 -70.345245 -601588.56 4285891470
3.4029604e+33 -69.432541 -601588.56 4285101955
3.4029604e+33 -68.519836 -601588.56 4285757574
3.080351e+33 -266.71292 -601530.12 4289376464
3.080351e+33 -265.45654 -601530.12 4289050065
3.080351e+33 -264.20023 -601530.12 4289311955
3.080351e+33 -263.36261 -601530.12 4289509333
3.080351e+33 -262.52505 -601530.12 4289837269
3.080351e+33 -261.6875 -601530.12 4289968856
3.080351e+33 -260.43115 -601530.12 4289969621
3.080351e+33 -259.1748 -601530.12 4290297818
3.080351e+33 -258.33722 -601530.12 4290297818
3.080351e+33 -257.49966 -601530.12 4290626783
3.080351e+33 -256.66208 -601530.12 4290429405
2.5716022e+33 -274.43842 -601354.19 4284246911
2.5716022e+33 -273.3598 -601354.19 4284182399
2.5716022e+33 -272.64075 -601354.19 4284116606
2.5716022e+33 -271.56216 -601354.19 4284444542
2.5716022e+33 -270.48358 -601354.19 4284575874
2.5716022e+33 -268.32645 -601354.19 4284707460
2.5716022e+33 -267.60736 -601354.19 4284773516
2.8062888e+33 -266.38989 -601366.62 4286614438
2.8062888e+33 -265.22934 -601366.62 4286811818
2.8062888e+33 -264.45563 -601366.62 4286878117
2.8062888e+33 -263.68195 -601366.62 4286943911
2.8062888e+33 -262.52136 -601366.62 4287141035
2.8062888e+33 -261.36078 -601366.62 4287206576
2.8062888e+33 -260.58707 -601366.62 4287272369
2.8062888e+33 -259.42651 -601366.62 4287403958
2.1885395e+33 -124.00259 -601101 4286548903
2.1885395e+33 -123.37279 -601101 4286943661
2.1885395e+33 -122.42809 -601101 4287597993
2.0310687e+33 -110.47507 -601139.19 4286809758
2.0310687e+33 -109.58538 -601139.19 4286744219
2.0310687e+33 -108.39912 -601139.19 4286612379
1.8907694e+33 -98.708145 -601124.06 4286547362
1.8907694e+33 -97.867455 -601124.06 4287995325
2.0310687e+33 -92.384537 -601139.19 4288192193
2.1255537e+33 -117.20393 -598754.81 4287465889
1.9749518e+33 -104.35486 -598839.44 4286874783
1.9749518e+33 -93.632172 -598839.44 4288190393
2.1255537e+33 -90.466232 -598754.81 4289177538
2.7105923e+33 -266.23444 -598359.75 4286087577
2.7105923e+33 -263.60654 -598359.75 4286023323
2.7105923e+33 -262.48032 -598359.75 4285958045
2.9683128e+33 -262.48587 -598289.69 4288653511
3.2701316e+33 -260.67618 -598084.31 4291745778
3.2701316e+33 -259.7951 -598084.31 4291811571
3.2701316e+33 -258.47351 -598084.31 4292271606
3.2701316e+33 -257.15189 -598084.31 4292468472
3.6298813e+33 -256.15918 -597951 4294967295
3.6298813e+33 -255.19435 -597951 4294967295
3.6298813e+33 -254.22952 -597951 4294967295
3.6298813e+33 -253.26469 -597951 4294967295
3.6298813e+33 -252.29985 -597951 4294967295
3.6298813e+33 -251.33504 -597951 4294967295
3.6298813e+33 -250.37019 -597951 4294967295
3.6298813e+33 -249.40538 -597951 4294967295
3.6298813e+33 -82.489922 -597951 4288652466
3.6298813e+33 -81.525078 -597951 4288389038
3.6298813e+33 -80.560249 -597951 4288323244
3.6298813e+33 -79.595421 -597951 4288520880
3.6298813e+33 -78.630592 -597951 4283722354
4.0643902e+33 -244.24696 -597669.25 4294967295
4.0643902e+33 -243.181 -597669.25 4294967295
4.0643902e+33 -242.11505 -597669.25 4294967295
4.0643902e+33 -241.04907 -597669.25 4294967295
4.0643902e+33 -239.98312 -597669.25 4294967295
4.0643902e+33 -117.39748 -597669.25 4288382853
4.0643902e+33 -116.33152 -597669.25 4288055937
4.0643902e+33 -115.26557 -597669.25 4288187266
4.0643902e+33 -114.1996 -597669.25 4288841589
4.6009908e+33 -235.51614 -597365.19 4294967295
4.6009908e+33 -234.32527 -597365.19 4294967295
4.6009908e+33 -230.75267 -597365.19 4294967295
4.6009908e+33 -229.56181 -597365.19 4294967295
4.6009908e+33 -228.37094 -597365.19 4294967295
1.9213667e+33 -100.20913 -596651.06 4286941092
1.9213667e+33 -99.3591 -596651.06 4286481054
1.9213667e+33 -98.509064 -596651.06 4287797171
1.9213667e+33 -97.659027 -596651.06 4288061622
1.9213667e+33 -96.808998 -596651.06 4288257983
2.065107e+33 -112.50237 -596398.06 4286941090
2.065107e+33 -111.90227 -596398.06 4286743713
2.065107e+33 -92.098564 -596398.06 4288259528
2.065107e+33 -91.498451 -596398.06 4287930313
2.065107e+33 -90.598289 -596398.06 4288590571
2.065107e+33 -89.698128 -596398.06 4294443007
2.6205541e+33 -270.11526 -595562 4284839052
2.6205541e+33 -269.38596 -595562 4285102218
2.6205541e+33 -268.65668 -595562 4285036425
2.6205541e+33 -267.56271 -595562 4285168011
2.6205541e+33 -266.46878 -595562 4285430415
2.6205541e+33 -265.37485 -595562 4285365135
2.8632061e+33 -261.66324 -595249.62 4287470518
2.8632061e+33 -260.48462 -595249.62 4287667385
2.8632061e+33 -259.306 -595249.62 4287930302
2.8632061e+33 -258.52026 -595249.62 4287996097
2.8632061e+33 -257.73453 -595249.62 4287996097
3.1460733e+33 -260.26855 -594790.5 4290560736
3.1460733e+33 -259.41702 -594790.5 4290627553
3.1460733e+33 -258.56549 -594790.5 4290758882
3.1460733e+33 -256.01089 -594790.5 4291350761
3.1460733e+33 -255.15938 -594790.5 4291284967
3.4811839e+33 -253.08316 -594341.94 4294639615
3.4811839e+33 -252.15366 -594341.94 4294705151
3.4811839e+33 -73.693649 -594341.94 4283190627
3.4811839e+33 -72.764183 -594341.94 4282405220
3.4811839e+33 -71.834694 -594341.94 4286287008
2.0076348e+33 -106.269 -594203.38 4286480539
2.0076348e+33 -105.68272 -594203.38 4286546332
2.0076348e+33 -93.370644 -594203.38 4288190909
2.0076348e+33 -92.491196 -594203.38 4287929020
2.1622385e+33 -120.02348 -593877.31 4287400362
2.1622385e+33 -119.40125 -593877.31 4287400362
2.1622385e+33 -118.77902 -593877.31 4287006370
3.8834628e+33 -252.61081 -593746.62 4294967295
3.8834628e+33 -251.58775 -593746.62 4294967295
3.8834628e+33 -250.56471 -593746.62 4294967295
3.8834628e+33 -249.54167 -593746.62 4294967295
3.8834628e+33 -248.51863 -593746.62 4294967295
3.8834628e+33 -247.49559 -593746.62 4294967295
3.8834628e+33 -246.47253 -593746.62 4294967295
3.8834628e+33 -245.44949 -593746.62 4294967295
3.8834628e+33 -244.42645 -593746.62 4294967295
3.8834628e+33 -243.40341 -593746.62 4294967295
3.8834628e+33 -242.38037 -593746.62 4294967295
3.8834628e+33 -241.35733 -593746.62 4294967295
3.8834628e+33 -105.29255 -593746.62 4289230410
3.8834628e+33 -104.26949 -593746.62 4287780930
3.8834628e+33 -103.24645 -593746.62 4290346858
3.8834628e+33 -102.22341 -593746.62 4290624453
3.8834628e+33 -101.20037 -593746.62 4290822088
3.8834628e+33 -100.17733 -593746.62 4290623939
3.8834628e+33 -97.108192 -593746.62 4290690248
3.8834628e+33 -96.085152 -593746.62 4290361546
4.375768e+33 -238.38057 -593014.31 4294967295
4.375768e+33 -237.24301 -593014.31 4294967039
4.375768e+33 -236.10547 -593014.31 4294901759
4.375768e+33 -234.96793 -593014.31 4294901759
4.375768e+33 -233.83037 -593014.31 4294704383
4.375768e+33 -232.69283 -593014.31 4294770175
4.375768e+33 -231.55528 -593014.31 4294572799
